# .PCD v.7 - Point Cloud Data file format
VERSION .7
FIELDS x y z
SIZE 4 4 4
TYPE F F F
COUNT 1 1 1
WIDTH 975
HEIGHT 1
VIEWPOINT 576821 4.139630 -0.486031 1 0 0 0
POINTS 975
DATA ascii
  -3.9883800e-02  -1.8440233e-02   4.4476744e-02
  -3.9758098e-02  -2.3126814e-02   4.5063050e-02
  -3.8802471e-02  -1.4567593e-02   4.3781495e-02
  -3.9131124e-02  -1.4627653e-02   4.4121609e-02
  -3.9217769e-02  -1.4751538e-02   4.4319844e-02
  -3.8881419e-02  -1.5417228e-02   4.3794989e-02
  -4.1008427e-02  -1.9333425e-02   4.6532963e-02
  -4.0930271e-02  -1.9790171e-02   4.6697776e-02
  -4.0483029e-02  -2.0063397e-02   4.6146358e-02
  -3.9513607e-02  -1.9677141e-02   4.5145325e-02
  -5.0286899e-02  -1.4474031e-02   5.7249585e-02
  -3.8775538e-02  -1.8295954e-02   4.4799019e-02
  -3.9490690e-02  -1.9606873e-02   4.5629553e-02
  -4.0271013e-02  -2.0316822e-02   4.6505751e-02
  -4.0085397e-02  -2.0086103e-02   4.6306679e-02
  -3.8812446e-02  -1.9541285e-02   4.4754167e-02
  -4.0184022e-02  -2.0521657e-02   4.6627250e-02
  -4.3938299e-02  -2.3051333e-02   5.0745830e-02
  -3.9811707e-02  -2.1199141e-02   4.6261869e-02
  -3.9470716e-02  -2.1267948e-02   4.5930216e-02
  -4.2626955e-02  -1.5391356e-02   4.9449327e-02
  -4.5929982e-02  -2.0337769e-02   5.3488567e-02
  -3.8760846e-02  -1.8773205e-02   4.5327770e-02
  -4.0696395e-02  -2.1149724e-02   4.7934474e-02
  -3.9472249e-02  -2.0672668e-02   4.6544686e-02
  -3.9798813e-02  -2.0883403e-02   4.6969598e-02
  -3.9616943e-02  -2.0998886e-02   4.6731768e-02
  -3.9353123e-02  -2.1841969e-02   4.6614914e-02
  -3.9478381e-02  -2.3254907e-02   4.6726075e-02
  -4.0064448e-02   1.6671301e-02   3.4401696e-02
  -5.2229044e-02   1.6048617e-02   4.5285684e-02
  -3.9783392e-02   1.4845494e-02   3.4650142e-02
  -4.9604237e-02   1.7009355e-02   4.3537544e-02
  -5.0468118e-02   1.7286275e-02   4.4272857e-02
  -5.0136945e-02   1.7120050e-02   4.3970995e-02
  -5.0144496e-02   1.7235584e-02   4.4708492e-02
  -4.0025804e-02   1.6084487e-02   3.5916678e-02
  -4.0744199e-02   1.4316580e-02   3.6746870e-02
  -3.9383911e-02   1.3841453e-02   3.5499074e-02
  -4.0319774e-02   1.4047040e-02   3.6330328e-02
  -4.7509369e-02  -1.9549329e-03   5.0193375e-02
  -4.7815402e-02  -3.0279513e-03   5.0681833e-02
  -4.5340596e-02  -4.6429133e-03   4.8202059e-02
  -4.6186288e-02  -4.7433239e-03   4.9048786e-02
  -5.3706398e-02  -1.0583836e-02   5.7305571e-02
  -5.3181063e-02  -1.3217125e-02   5.7341670e-02
  -5.1839193e-02  -1.7160752e-02   5.6200389e-02
  -5.0963104e-02  -2.2746126e-02   5.5577725e-02
  -3.9590904e-02  -2.0179126e-02   4.3597828e-02
  -4.5455041e-02  -2.4774814e-02   5.0194209e-02
  -4.0775044e-02  -2.4815392e-02   4.4992631e-02
  -4.6301639e-02  -6.2277851e-04   4.9531502e-02
  -4.9126252e-02  -1.3162314e-03   5.2573182e-02
  -5.3181375e-02  -8.8189327e-03   5.7509975e-02
  -4.0426627e-02  -9.4947740e-03   4.4156761e-02
  -4.0601276e-02  -1.0464648e-02   4.4186044e-02
  -5.0350394e-02  -1.4432637e-02   5.4898251e-02
  -4.0259236e-02  -1.8107201e-02   4.4547693e-02
  -3.9934556e-02  -1.8216579e-02   4.4281206e-02
  -4.0241261e-02  -1.8190955e-02   4.4546876e-02
  -4.0893893e-02  -1.8576627e-02   4.5380829e-02
  -4.0324483e-02  -1.9398783e-02   4.4763167e-02
  -3.9266716e-02  -1.9377594e-02   4.3538291e-02
  -3.9394335e-02  -1.9728387e-02   4.3702218e-02
  -3.9612820e-02  -1.9890626e-02   4.4000448e-02
  -3.9005663e-02  -1.9573336e-02   4.3335162e-02
  -4.0466539e-02  -2.0338273e-02   4.5004105e-02
  -3.9871626e-02  -2.0514461e-02   4.4471627e-02
  -4.4696953e-02  -2.5146556e-02   5.0200211e-02
  -5.2281262e-02  -6.3668225e-04   5.6753794e-02
  -4.5127291e-02  -3.2092707e-03   4.9034895e-02
  -4.1446602e-02  -1.2455922e-02   4.5977728e-02
  -4.6497212e-02  -1.4960912e-02   5.1612158e-02
  -4.2212929e-02  -1.9378921e-02   4.7550683e-02
  -5.0368673e-02  -2.4108057e-02   5.6716275e-02
  -4.1074112e-02  -2.0353791e-02   4.6542860e-02
  -3.9654759e-02  -2.1016113e-02   4.4876550e-02
  -4.4060130e-02  -7.1703834e-04   4.8506105e-02
  -4.3617323e-02  -1.3267848e-03   4.7997917e-02
  -4.3973516e-02  -2.7016441e-03   4.8760356e-02
  -4.3472721e-02  -3.3243793e-03   4.8210791e-02
  -3.9533589e-02  -3.1732859e-03   4.3920380e-02
  -3.9254378e-02  -3.3716144e-03   4.3602192e-02
  -4.4289873e-02  -5.3451663e-03   4.9126216e-02
  -4.9758610e-02  -2.3500353e-02   5.7139397e-02
  -3.9524964e-02  -1.9139131e-02   4.5152197e-02
  -3.9888559e-02  -1.9782796e-02   4.5668935e-02
  -4.0671112e-02  -2.0481064e-02   4.6833874e-02
  -4.0808171e-02  -2.0470249e-02   4.6703325e-02
  -4.0765310e-02  -2.0480632e-02   4.6757599e-02
  -4.0500853e-02  -2.0350026e-02   4.6436417e-02
  -4.1063970e-02  -2.0630422e-02   4.7044117e-02
  -4.0108118e-02  -2.0161501e-02   4.5980560e-02
  -3.9703578e-02  -1.9958083e-02   4.5430399e-02
  -4.0166585e-02  -2.0257589e-02   4.6166369e-02
  -4.0412862e-02  -2.0485068e-02   4.6491281e-02
  -3.9028798e-02  -2.0346953e-02   4.4876822e-02
  -4.3483450e-02  -2.4345822e-02   5.0010648e-02
  -3.9730741e-02  -2.3046908e-02   4.5834426e-02
  -4.3490041e-02  -1.1784564e-03   4.8488304e-02
  -5.1279769e-02  -2.4540619e-03   5.7407644e-02
  -5.1517437e-02  -3.1240374e-03   5.7846498e-02
  -4.3748963e-02  -6.3356167e-03   4.9548971e-02
  -4.2057516e-02  -7.5122640e-03   4.7609284e-02
  -4.5834659e-02  -1.0002612e-02   5.2212840e-02
  -4.5639004e-02  -1.0911857e-02   5.2122681e-02
  -4.5423399e-02  -1.1448953e-02   5.1778624e-02
  -4.7291449e-02  -1.8943070e-02   5.4587129e-02
  -4.7514961e-02  -1.9040410e-02   5.4760140e-02
  -4.9573493e-02  -2.3422961e-02   5.7500918e-02
  -3.8808119e-02  -1.8764456e-02   4.5268396e-02
  -3.9789881e-02  -2.0349482e-02   4.6527094e-02
  -3.9545888e-02  -2.0232406e-02   4.6259595e-02
  -4.0003928e-02  -2.0306653e-02   4.6807939e-02
  -4.0423268e-02  -2.0624880e-02   4.7175638e-02
  -3.9165486e-02  -2.1106778e-02   4.5635180e-02
  -4.0244377e-02  -2.5116631e-02   4.7345659e-02
  -4.2865570e-02  -8.2831175e-04   4.8625490e-02
  -4.2129171e-02  -8.2353392e-04   4.7828934e-02
  -4.2951356e-02  -8.9769692e-04   4.8677787e-02
  -4.3483174e-02  -9.1418910e-04   4.9234861e-02
  -4.3429811e-02  -9.3189696e-04   4.9184841e-02
  -4.3227995e-02  -1.0878233e-03   4.9028289e-02
  -4.2646512e-02  -1.7663728e-03   4.8630727e-02
  -4.2825500e-02  -8.2414820e-03   4.9439061e-02
  -4.4252689e-02  -1.4116252e-02   5.1603499e-02
  -4.4040504e-02  -1.4677898e-02   5.1455775e-02
  -4.9129142e-02  -2.3344863e-02   5.7818084e-02
  -4.9054401e-02  -2.3391321e-02   5.8023324e-02
  -3.9677460e-02  -2.0167123e-02   4.6945095e-02
  -3.9521937e-02  -2.2952954e-02   4.7040243e-02
  -4.4863722e-02   1.4835536e-02   4.2035607e-02
  -4.4778655e-02   1.4713039e-02   4.1795295e-02
  -4.5200246e-02   1.4066958e-02   4.2363900e-02
  -5.1743441e-02   1.5510336e-02   4.8638254e-02
  -5.5172915e-02   1.4996137e-02   5.1736175e-02
  -4.2443981e-02   1.0013459e-02   3.9887868e-02
  -4.2139836e-02   9.9215518e-03   3.9657443e-02
  -4.2151864e-02   9.8146596e-03   3.9807579e-02
  -5.1185379e-02   8.1280899e-03   4.8456240e-02
  -5.1397533e-02   2.2975902e-03   4.9178446e-02
  -5.2968187e-02   2.3830586e-03   5.0987364e-02
  -5.1043863e-02   2.2728243e-03   4.9175304e-02
  -5.1851091e-02   1.5187304e-03   4.9935252e-02
  -5.1858964e-02   1.4749716e-03   4.9983215e-02
  -5.1952861e-02   1.1746171e-03   5.0048391e-02
  -5.1894749e-02   1.0152534e-03   5.0010284e-02
  -5.0894345e-02   8.2877571e-04   4.8946361e-02
  -5.3613108e-02   8.5422197e-04   5.1732933e-02
  -5.2288943e-02   7.4394854e-04   5.0341906e-02
  -5.0068403e-02   5.0419557e-04   4.8057426e-02
  -5.2048043e-02   5.1921418e-04   4.9972365e-02
  -5.2020469e-02  -3.7499278e-04   5.0248373e-02
  -5.1831199e-02  -5.0840057e-04   4.9955240e-02
  -5.3665208e-02  -3.1765370e-03   5.1992350e-02
  -4.7021750e-02  -3.4801025e-03   4.5706500e-02
  -4.8208060e-02  -3.5961438e-03   4.6777912e-02
  -4.8304146e-02  -4.0983854e-03   4.6882504e-02
  -5.3374748e-02  -5.1376712e-03   5.2045726e-02
  -5.2060918e-02  -6.6156218e-03   5.0613165e-02
  -5.2709010e-02  -8.1711403e-03   5.1596554e-02
  -5.1993934e-02  -8.8938585e-03   5.0743939e-02
  -5.2261290e-02  -1.1366043e-02   5.1347857e-02
  -5.2807620e-02  -1.1550871e-02   5.1830390e-02
  -4.3200540e-02  -1.2581985e-02   4.2578714e-02
  -5.0552395e-02  -1.6372346e-02   5.0072755e-02
  -5.2701968e-02  -1.7624165e-02   5.2396945e-02
  -5.2284634e-02  -1.7632810e-02   5.2019936e-02
  -5.0999623e-02  -1.7365157e-02   5.0692269e-02
  -5.0730094e-02  -1.7856867e-02   5.0457103e-02
  -5.1032306e-02  -1.8207693e-02   5.0747790e-02
  -5.1027214e-02  -1.9311116e-02   5.0717257e-02
  -4.2470283e-02  -1.8816033e-02   4.2419565e-02
  -4.0980304e-02  -1.9880557e-02   4.1044530e-02
  -4.1041519e-02  -2.0135501e-02   4.1149976e-02
  -4.1940976e-02  -2.0755215e-02   4.2177527e-02
  -5.0558714e-02   1.5901348e-02   4.8224865e-02
  -5.2761635e-02   1.5418394e-02   5.0312491e-02
  -5.3582572e-02   1.3132307e-02   5.1199450e-02
  -5.5128493e-02   1.3300461e-02   5.2771611e-02
  -4.0873593e-02   9.6227783e-03   3.9280648e-02
  -5.2931411e-02   1.2026612e-02   5.0827278e-02
  -4.6424161e-02   9.5827818e-03   4.4584604e-02
  -4.6674560e-02   8.6721433e-03   4.4753928e-02
  -4.8867160e-02   9.0635626e-03   4.6926654e-02
  -5.4864513e-02   7.9748093e-03   5.3027186e-02
  -5.0229072e-02   2.9365794e-03   4.8769961e-02
  -4.4088177e-02   1.1237590e-03   4.3137318e-02
  -5.2192967e-02   1.2381959e-03   5.0778115e-02
  -5.0668964e-02   1.1181416e-03   4.9629377e-02
  -5.1235477e-02   9.6407693e-04   4.9903965e-02
  -3.8839628e-02   3.2212117e-04   3.8069676e-02
  -3.8801885e-02  -1.9236243e-03   3.8217731e-02
  -4.7033402e-02  -2.7333311e-03   4.6210039e-02
  -5.3499387e-02  -3.6777176e-03   5.2747348e-02
  -5.3597251e-02  -5.9685117e-03   5.2921086e-02
  -5.1919251e-02  -8.5817650e-03   5.1495336e-02
  -5.1834135e-02  -1.3223584e-02   5.1959904e-02
  -5.2902910e-02  -1.6929403e-02   5.3254786e-02
  -4.2190640e-02  -1.3800704e-02   4.2551482e-02
  -5.7215430e-02  -1.9200036e-02   5.7667451e-02
  -5.1193345e-02  -1.7861426e-02   5.1438504e-02
  -5.1077765e-02  -1.8284836e-02   5.1344765e-02
  -5.6290191e-02  -2.3514249e-02   5.7009779e-02
  -4.0567290e-02  -1.8015935e-02   4.1051987e-02
  -4.1592501e-02  -1.8604992e-02   4.2155027e-02
  -4.1380540e-02  -2.2979804e-02   4.2272156e-02
  -4.3498830e-02   1.7236020e-02   4.1785359e-02
  -4.6209647e-02   1.6524949e-02   4.4377600e-02
  -5.2242026e-02   1.6180942e-02   5.0499893e-02
  -5.5030373e-02   1.5406588e-02   5.3146488e-02
  -5.3440778e-02   1.4382625e-02   5.1958858e-02
  -5.1818723e-02   1.3820481e-02   5.0144689e-02
  -5.4713817e-02   1.4644972e-02   5.3114372e-02
  -5.5092334e-02   1.4639034e-02   5.3487186e-02
  -4.0093375e-02   1.0535610e-02   3.8760032e-02
  -5.1787624e-02   1.3632653e-02   5.0073148e-02
  -4.1173999e-02   1.0866136e-02   4.0048327e-02
  -5.2803813e-02   1.2382468e-02   5.1319284e-02
  -5.7308047e-02   1.3355380e-02   5.5841867e-02
  -4.4806705e-02   9.8181006e-03   4.3691935e-02
  -4.3534091e-02   9.3339089e-03   4.2386239e-02
  -4.8763941e-02   8.1147336e-03   4.7664780e-02
  -4.9591430e-02   4.6839946e-03   4.8881060e-02
  -4.8939136e-02   3.7381342e-03   4.8414608e-02
  -4.9893519e-02   1.5955809e-03   4.9351986e-02
  -5.0463636e-02   7.2441141e-04   4.9973458e-02
  -4.9113212e-02   4.8966772e-04   4.8562497e-02
  -5.3154250e-02  -1.1982866e-03   5.2789981e-02
  -4.7252422e-02  -1.7341756e-03   4.7178555e-02
  -3.8780016e-02  -2.3793919e-03   3.8735547e-02
  -5.2843243e-02  -5.7491675e-03   5.2847344e-02
  -5.1052915e-02  -5.8511255e-03   5.1146436e-02
  -4.5319640e-02  -8.1432078e-03   4.5749252e-02
  -5.2435823e-02  -1.2205339e-02   5.3085770e-02
  -4.8454065e-02  -1.2334884e-02   4.9168561e-02
  -4.9691194e-02  -1.3076406e-02   5.0448089e-02
  -4.1480396e-02  -1.1896507e-02   4.2074402e-02
  -5.1841268e-02  -1.7321554e-02   5.3116336e-02
  -5.6583194e-02  -2.0107903e-02   5.7997812e-02
  -4.0867203e-02  -1.7905817e-02   4.2093017e-02
  -4.1741363e-02  -1.9853417e-02   4.3053932e-02
  -4.1353527e-02  -2.0896271e-02   4.2764003e-02
  -5.5170269e-02   1.5852392e-02   5.4069418e-02
  -4.1192863e-02   1.1782284e-02   4.0551139e-02
  -5.4599522e-02   1.4539095e-02   5.3677896e-02
  -4.1019181e-02   9.6231477e-03   4.0399004e-02
  -4.1059694e-02   9.4604894e-03   4.0540270e-02
  -4.0788962e-02   9.4296140e-03   4.0313849e-02
  -4.0928489e-02   9.4825665e-03   4.0453120e-02
  -3.9408604e-02   9.0469220e-03   3.8931961e-02
  -3.9483447e-02   9.0455730e-03   3.9072049e-02
  -5.3756994e-02   1.1765109e-02   5.3187271e-02
  -4.5849986e-02   9.8693494e-03   4.5404873e-02
  -5.3195412e-02   1.1183005e-02   5.2672552e-02
  -4.1429906e-02   5.4487526e-03   4.1329331e-02
  -5.7740530e-02   6.7139050e-03   5.7573513e-02
  -4.8705790e-02   4.0899711e-03   4.8654210e-02
  -4.8898313e-02   4.1150624e-03   4.8957023e-02
  -4.8486977e-02   4.9946320e-04   4.8734411e-02
  -4.7738591e-02   3.2347228e-04   4.8077904e-02
  -4.5981225e-02  -2.1981923e-03   4.6375336e-02
  -5.0029117e-02  -3.5116620e-03   5.0758871e-02
  -4.8825219e-02  -3.4348097e-03   4.9571419e-02
  -4.3717195e-02  -5.8252853e-03   4.4439608e-02
  -5.3001815e-02  -7.5516408e-03   5.4224149e-02
  -5.3171581e-02  -1.0553317e-02   5.4432664e-02
  -4.4127421e-02  -8.9699068e-03   4.5246639e-02
  -5.3483400e-02  -1.1751860e-02   5.4858716e-02
  -5.3916505e-02  -1.2365130e-02   5.5234802e-02
  -5.4446975e-02  -1.2610488e-02   5.5966771e-02
  -5.2423234e-02  -1.2151227e-02   5.3752281e-02
  -5.4782845e-02  -1.2793985e-02   5.6390835e-02
  -5.3698003e-02  -1.2623078e-02   5.5132856e-02
  -5.4532225e-02  -1.2840553e-02   5.6072843e-02
  -5.3480278e-02  -1.2605977e-02   5.4969784e-02
  -5.4196914e-02  -1.2774289e-02   5.5657620e-02
  -4.9153853e-02  -1.2727023e-02   5.0673977e-02
  -5.1602386e-02  -1.5892722e-02   5.3242265e-02
  -3.8827545e-02  -1.3094250e-02   4.0277646e-02
  -4.9213626e-02  -2.0706084e-02   5.1253012e-02
  -4.9352412e-02  -2.0735992e-02   5.1527106e-02
  -4.9910538e-02  -2.1228034e-02   5.2217497e-02
  -4.0734387e-02  -1.7420531e-02   4.2586040e-02
  -4.5437942e-02  -1.9514848e-02   4.7518201e-02
  -5.1654953e-02  -2.2595337e-02   5.3892970e-02
  -4.0309734e-02  -1.8603822e-02   4.2200224e-02
  -4.1195483e-02  -1.9186871e-02   4.3100624e-02
  -4.0827528e-02  -2.2300153e-02   4.3040099e-02
  -4.0677183e-02  -2.2281879e-02   4.2953794e-02
  -4.0957474e-02  -2.2608689e-02   4.3331986e-02
  -5.4868391e-02   1.6276432e-02   5.4762988e-02
  -4.0030044e-02   1.1012247e-02   4.0037415e-02
  -3.9696856e-02   1.0844989e-02   3.9721792e-02
  -4.0020096e-02   1.0541674e-02   3.9967714e-02
  -4.1290644e-02   9.7499956e-03   4.1363777e-02
  -3.9953475e-02   9.2405707e-03   4.0125688e-02
  -4.2768091e-02   9.7039343e-03   4.3028796e-02
  -4.2580522e-02   9.6631195e-03   4.2807077e-02
  -4.2616557e-02   9.6397752e-03   4.2805068e-02
  -4.2238491e-02   9.4975947e-03   4.2201450e-02
  -4.2752995e-02   9.6233188e-03   4.2721032e-02
  -4.2771539e-02   9.6293355e-03   4.2836097e-02
  -4.0623424e-02   8.8378328e-03   4.0865235e-02
  -5.2104774e-02   1.1199582e-02   5.2476560e-02
  -4.4569653e-02   9.4949931e-03   4.4799039e-02
  -5.2527331e-02   1.0927855e-02   5.2616266e-02
  -5.2766151e-02   1.0855030e-02   5.2838437e-02
  -4.6391923e-02   8.7206096e-03   4.6490352e-02
  -4.0841418e-02   4.0127135e-03   4.1356521e-02
  -4.7276543e-02   2.6582784e-03   4.8237378e-02
  -4.7123282e-02  -6.6676721e-05   4.8102025e-02
  -4.7029213e-02  -8.5595412e-05   4.7994761e-02
  -4.5920538e-02  -1.0692307e-04   4.6873275e-02
  -4.7220555e-02  -1.7972823e-04   4.8297659e-02
  -4.7856585e-02  -2.7381948e-04   4.9026167e-02
  -4.7283537e-02  -3.1730594e-04   4.8340178e-02
  -4.7924542e-02  -3.5971985e-04   4.8999225e-02
  -4.6780916e-02  -6.4714992e-04   4.7822805e-02
  -4.6349982e-02  -2.4630675e-03   4.7524603e-02
  -4.5982952e-02  -2.5323301e-03   4.7068781e-02
  -4.5769098e-02  -2.5493690e-03   4.6867767e-02
  -4.7881536e-02  -3.6522901e-03   4.9370122e-02
  -4.9830829e-02  -6.3488190e-03   5.1543125e-02
  -5.2656012e-02  -7.9011017e-03   5.4364216e-02
  -5.1995706e-02  -1.1504808e-02   5.4314202e-02
  -4.1627116e-02  -1.0973411e-02   4.3560198e-02
  -4.8045185e-02  -1.4525792e-02   5.0335114e-02
  -4.8559302e-02  -1.4697535e-02   5.0948298e-02
  -5.1772198e-02  -1.5945856e-02   5.4542880e-02
  -4.0541112e-02  -1.3525101e-02   4.2563450e-02
  -4.0812239e-02  -1.4177803e-02   4.2947785e-02
  -4.0780466e-02  -1.4331041e-02   4.3032534e-02
  -4.0705146e-02  -1.4481450e-02   4.2973549e-02
  -4.1166969e-02  -1.8704818e-02   4.3713838e-02
  -4.0731059e-02  -2.3588567e-02   4.3864793e-02
  -5.3980340e-02   1.7023667e-02   5.4609076e-02
  -5.4491730e-02   1.7185816e-02   5.5121424e-02
  -5.4985395e-02   1.4789383e-02   5.5912044e-02
  -5.5669589e-02   1.4678235e-02   5.6459958e-02
  -5.2237975e-02   1.1747507e-02   5.3204775e-02
  -3.9020667e-02   8.5662940e-03   3.9609997e-02
  -4.0072726e-02   3.6713871e-03   4.1100798e-02
  -4.9199475e-02   3.4860124e-03   5.0566346e-02
  -4.5377563e-02   3.1914057e-04   4.7099456e-02
  -4.6958544e-02   2.7591438e-04   4.8651026e-02
  -4.5037250e-02  -1.4256335e-03   4.6700128e-02
  -4.7366816e-02  -3.4493262e-03   4.9330256e-02
  -4.0769606e-02  -5.0583572e-03   4.2888995e-02
  -5.4445146e-02  -7.2356391e-03   5.7333482e-02
  -5.3472243e-02  -1.0550248e-02   5.6521939e-02
  -4.4160433e-02  -8.7682775e-03   4.6467422e-02
  -4.8707772e-02  -1.1327794e-02   5.1694448e-02
  -4.2165774e-02  -9.9101248e-03   4.4485633e-02
  -4.2075244e-02  -9.9456155e-03   4.4465444e-02
  -5.2079498e-02  -1.4688984e-02   5.5265148e-02
  -5.1762708e-02  -1.7000346e-02   5.5132704e-02
  -4.0798187e-02  -1.5204872e-02   4.3753494e-02
  -5.0058845e-02  -2.1380420e-02   5.4097284e-02
  -4.3747846e-02  -1.9957200e-02   4.7400907e-02
  -4.1125597e-02  -1.9327185e-02   4.4368313e-02
  -4.0075593e-02  -1.8895925e-02   4.3268536e-02
  -4.5886113e-02  -2.4523368e-02   5.0010958e-02
  -4.6036478e-02  -2.4824748e-02   5.0100276e-02
  -4.0368804e-02  -2.2412184e-02   4.4122812e-02
  -3.8939776e-02   1.2767837e-02   3.6201567e-02
  -4.4749193e-02   1.4333405e-02   4.1606269e-02
  -4.4622463e-02   1.4290458e-02   4.1567319e-02
  -5.3029987e-02   1.2513784e-02   4.9651247e-02
  -5.7736549e-02   1.2375981e-02   5.4114697e-02
  -5.7302345e-02   1.2276435e-02   5.3760071e-02
  -5.8115229e-02   1.2187295e-02   5.4595580e-02
  -5.8662533e-02   1.2279767e-02   5.5105044e-02
  -5.9371652e-02   1.1896499e-02   5.5846538e-02
  -4.7231000e-02   8.9496204e-03   4.4521683e-02
  -4.7080089e-02   8.9606708e-03   4.4274445e-02
  -4.3873128e-02   8.0943626e-03   4.1227231e-02
  -5.5992192e-02   9.3688287e-03   5.2767610e-02
  -5.5804831e-02   8.9181946e-03   5.2503195e-02
  -4.8905898e-02   7.4298304e-03   4.6050131e-02
  -5.0783282e-02   4.1453924e-03   4.8397146e-02
  -5.1826165e-02   1.9337021e-03   4.9298393e-02
  -4.7346730e-02   1.1874673e-03   4.5049866e-02
  -4.8696543e-02   1.2691551e-03   4.6574788e-02
  -5.2497339e-02   1.0610392e-03   5.0285020e-02
  -5.1088628e-02   1.0616241e-03   4.8872153e-02
  -4.8001857e-02   9.1673553e-04   4.6008699e-02
  -5.0494024e-02   3.5843318e-04   4.8449096e-02
  -4.6953672e-02  -2.9568353e-04   4.4869480e-02
  -5.3380088e-02  -1.2450834e-03   5.1327708e-02
  -4.7042356e-02  -3.7635729e-03   4.5376454e-02
  -4.7933676e-02  -3.9886715e-03   4.6161046e-02
  -4.8465410e-02  -5.0964621e-03   4.6887581e-02
  -5.3508994e-02  -6.3785283e-03   5.1620299e-02
  -5.2363479e-02  -8.1225176e-03   5.0674552e-02
  -5.2088879e-02  -9.3786569e-03   5.0653967e-02
  -5.2242569e-02  -9.9241570e-03   5.0849055e-02
  -5.1991992e-02  -1.0401463e-02   5.0786306e-02
  -5.0781701e-02  -1.6148660e-02   4.9839622e-02
  -5.4277547e-02  -1.7129344e-02   5.3456780e-02
  -5.6681540e-02  -1.9793858e-02   5.6058438e-02
  -5.1659491e-02  -1.8863821e-02   5.0807435e-02
  -5.8222215e-02  -2.1782660e-02   5.7322258e-02
  -4.6108888e-02   1.6772480e-02   4.3203741e-02
  -4.5647780e-02   1.5104685e-02   4.2932591e-02
  -4.5089865e-02   1.4903985e-02   4.2442936e-02
  -4.1887614e-02   1.1908901e-02   3.9731747e-02
  -4.2191421e-02   1.1076484e-02   4.0059493e-02
  -4.2060365e-02   9.9627210e-03   4.0056942e-02
  -4.1887942e-02   9.7406733e-03   3.9758443e-02
  -4.4019839e-02   9.9430954e-03   4.2003759e-02
  -4.9477388e-02   9.2004525e-03   4.7127658e-02
  -4.9486791e-02   8.1693552e-03   4.7184819e-02
  -4.2982132e-02   4.3343773e-03   4.1217539e-02
  -5.0814895e-02   2.2499597e-03   4.8984601e-02
  -4.9597761e-02   2.1976015e-03   4.7846377e-02
  -5.1944585e-02   2.2612362e-03   5.0168991e-02
  -5.0817659e-02   1.9618464e-03   4.9090913e-02
  -5.1213623e-02   2.0509711e-03   4.9550921e-02
  -5.0215292e-02   1.9880037e-03   4.8609408e-02
  -4.9372052e-02   1.9014632e-03   4.7617586e-02
  -5.1015293e-02   1.8811689e-03   4.9227320e-02
  -4.9161149e-02   1.8085850e-03   4.7528491e-02
  -5.1563444e-02   1.4127664e-03   4.9869436e-02
  -5.2539805e-02   9.5381761e-04   5.0985790e-02
  -5.2637583e-02   9.9786838e-04   5.0931812e-02
  -5.1407662e-02   1.1252896e-04   5.0035130e-02
  -5.4172353e-02  -1.6736140e-03   5.2657954e-02
  -5.3560379e-02  -1.7534031e-03   5.2159020e-02
  -5.4621427e-02  -1.8163925e-03   5.3209004e-02
  -5.2255204e-02  -1.8077228e-03   5.0993865e-02
  -4.6793345e-02  -1.8573644e-03   4.5519571e-02
  -5.3633789e-02  -5.1376947e-03   5.2407953e-02
  -4.8120110e-02  -4.9932316e-03   4.7088985e-02
  -4.8483432e-02  -5.1210146e-03   4.7422743e-02
  -4.2082137e-02  -7.3511171e-03   4.1487650e-02
  -5.1890532e-02  -1.0222309e-02   5.1136578e-02
  -5.2016727e-02  -1.1827956e-02   5.1469946e-02
  -4.9965411e-02  -1.2041430e-02   4.9521508e-02
  -4.0349498e-02  -1.0755043e-02   3.9979321e-02
  -5.4196961e-02  -1.4631703e-02   5.3941737e-02
  -4.1676842e-02  -1.1521124e-02   4.1412448e-02
  -3.9576345e-02  -1.3132862e-02   3.9622159e-02
  -5.1909077e-02  -1.7450932e-02   5.2035941e-02
  -5.1300815e-02  -1.8353606e-02   5.1168715e-02
  -4.0545482e-02  -1.7764104e-02   4.0781560e-02
  -4.0981665e-02  -1.8062515e-02   4.1250642e-02
  -4.2167456e-02  -1.8736183e-02   4.2546824e-02
  -4.1390174e-02  -1.8388767e-02   4.1697144e-02
  -4.1375930e-02  -1.8436433e-02   4.1743197e-02
  -4.1631922e-02  -1.8562500e-02   4.2092091e-02
  -4.0762512e-02  -1.8192786e-02   4.1166879e-02
  -4.4299322e-02   1.6130208e-02   4.2139732e-02
  -5.5359000e-02   1.6071226e-02   5.3072090e-02
  -5.2606186e-02   1.4645932e-02   5.0559367e-02
  -5.4480048e-02   1.4551747e-02   5.2598725e-02
  -5.4300515e-02   1.4067748e-02   5.2292042e-02
  -5.3747136e-02   1.3266372e-02   5.1899375e-02
  -5.3161311e-02   1.3014350e-02   5.1185616e-02
  -4.1433528e-02   9.9397560e-03   3.9975513e-02
  -5.3154348e-02   1.2300010e-02   5.1289682e-02
  -5.4989730e-02   1.2518771e-02   5.2927251e-02
  -5.3586567e-02   1.2009828e-02   5.1670185e-02
  -5.4410066e-02   1.2246302e-02   5.2506277e-02
  -5.2870399e-02   1.1829801e-02   5.1073821e-02
  -4.7300824e-02   9.5513862e-03   4.5746280e-02
  -5.0235284e-02   5.9474262e-03   4.8838782e-02
  -4.9467555e-02   5.4844065e-03   4.8250909e-02
  -5.1057265e-02   5.6353198e-03   4.9684513e-02
  -4.9965288e-02   5.2315566e-03   4.8914638e-02
  -4.1555420e-02   4.2761385e-03   4.0532663e-02
  -4.1771184e-02   4.2154634e-03   4.0866707e-02
  -5.0314774e-02   3.0431662e-03   4.9395474e-02
  -5.0097381e-02   2.2617516e-03   4.9267280e-02
  -5.0469945e-02   1.3283336e-03   4.9626656e-02
  -5.1248296e-02   7.2545662e-04   5.0322235e-02
  -5.0057686e-02   5.4994039e-04   4.9346152e-02
  -4.7541864e-02  -1.8886327e-03   4.6990318e-02
  -5.4705179e-02  -3.7245029e-03   5.4254617e-02
  -5.4209467e-02  -3.7512675e-03   5.3650181e-02
  -5.3609970e-02  -3.7752323e-03   5.3088237e-02
  -5.2325480e-02  -3.6769340e-03   5.1849054e-02
  -5.4590290e-02  -4.0920429e-03   5.4038123e-02
  -5.1100938e-02  -4.3239353e-03   5.0745934e-02
  -4.7326452e-02  -3.9007491e-03   4.7051718e-02
  -5.3675414e-02  -4.4745621e-03   5.3254164e-02
  -5.2648333e-02  -5.9185300e-03   5.2498301e-02
  -5.2787128e-02  -6.0215811e-03   5.2341304e-02
  -4.5510473e-02  -8.1237371e-03   4.5675383e-02
  -4.2578591e-02  -7.9914721e-03   4.2792651e-02
  -5.3247692e-02  -1.2174476e-02   5.3361756e-02
  -5.2154988e-02  -1.2903018e-02   5.2415174e-02
  -4.0353572e-02  -1.1597353e-02   4.0745028e-02
  -5.3631192e-02  -1.5781219e-02   5.4374600e-02
  -5.1951316e-02  -1.5716657e-02   5.2523903e-02
  -4.2396934e-02  -1.3092974e-02   4.2767148e-02
  -5.1452961e-02  -1.7628743e-02   5.2180420e-02
  -5.0140818e-02  -1.7818654e-02   5.0762775e-02
  -4.6591886e-02  -1.8995653e-02   4.7420032e-02
  -4.4723486e-02  -1.8520217e-02   4.5795951e-02
  -4.1291931e-02  -1.9375467e-02   4.2324068e-02
  -4.1999658e-02   1.2167227e-02   4.0913103e-02
  -5.2826973e-02   1.2172424e-02   5.1686329e-02
  -5.3329850e-02   1.2254147e-02   5.2154036e-02
  -5.2993943e-02   1.1648799e-02   5.2084791e-02
  -5.3951942e-02   1.1844010e-02   5.3043304e-02
  -5.0452548e-02   7.2624652e-03   4.9830514e-02
  -5.0202851e-02   7.2167304e-03   4.9611554e-02
  -4.1469831e-02   4.8632457e-03   4.0944979e-02
  -4.1389134e-02   4.2744683e-03   4.0969169e-02
  -4.1510864e-02   4.2981986e-03   4.1250766e-02
  -5.4638288e-02   5.5418964e-03   5.4269875e-02
  -4.1622192e-02   4.1738685e-03   4.1247399e-02
  -4.6245421e-02   1.5981107e-03   4.6054454e-02
  -5.0648851e-02   9.3881936e-04   5.0473060e-02
  -5.0880780e-02   9.6726089e-04   5.0668322e-02
  -4.9199633e-02   7.7602940e-04   4.8967660e-02
  -4.9407526e-02   9.7723282e-05   4.9276636e-02
  -5.3192995e-02  -1.3834511e-03   5.3153375e-02
  -4.6912077e-02  -1.2660833e-03   4.7174188e-02
  -4.6525725e-02  -1.6707638e-03   4.6751727e-02
  -4.5930633e-02  -2.8994991e-03   4.6337115e-02
  -3.8686291e-02  -2.5669583e-03   3.8991928e-02
  -4.6032268e-02  -3.0998653e-03   4.6227232e-02
  -4.9411285e-02  -3.6316609e-03   4.9807802e-02
  -5.3238685e-02  -6.1146901e-03   5.3659762e-02
  -5.0698205e-02  -6.2195414e-03   5.1263663e-02
  -4.6627387e-02  -6.3453540e-03   4.7208236e-02
  -4.6130951e-02  -6.2840516e-03   4.6597370e-02
  -4.4466868e-02  -6.0695268e-03   4.5104450e-02
  -4.3094660e-02  -6.7430286e-03   4.3562966e-02
  -5.2671376e-02  -1.0256910e-02   5.3618070e-02
  -5.3189622e-02  -1.1106306e-02   5.4325702e-02
  -5.3562881e-02  -1.1251567e-02   5.4643986e-02
  -5.2840062e-02  -1.2614267e-02   5.4028129e-02
  -5.3840066e-02  -1.2855654e-02   5.4848162e-02
  -4.1446333e-02  -1.4494017e-02   4.2608732e-02
  -4.0606399e-02  -1.4502192e-02   4.1971925e-02
  -5.1031885e-02  -2.1326567e-02   5.2813383e-02
  -4.5243711e-02  -1.9094526e-02   4.6992777e-02
  -4.1166084e-02  -1.9353828e-02   4.2732941e-02
  -4.0916958e-02  -1.9316957e-02   4.2542627e-02
  -4.1201950e-02  -1.9506664e-02   4.2852172e-02
  -4.8206391e-02  -2.4894654e-02   5.0426468e-02
  -4.7851316e-02  -2.4737745e-02   5.0115716e-02
  -4.0647320e-02  -2.2118032e-02   4.2626989e-02
  -5.1251688e-02   1.7038705e-02   5.0399617e-02
  -4.1022831e-02   1.2663324e-02   4.0679326e-02
  -4.1103811e-02   1.2488216e-02   4.0650498e-02
  -5.2007371e-02   1.3089922e-02   5.1501039e-02
  -4.1410243e-02   9.7210552e-03   4.1057787e-02
  -4.1080595e-02   9.4115395e-03   4.0913026e-02
  -4.2772682e-02   9.8331858e-03   4.2515638e-02
  -3.9150468e-02   8.9523261e-03   3.8918214e-02
  -4.2888843e-02   9.6790662e-03   4.2731674e-02
  -4.1561624e-02   9.3528331e-03   4.1299959e-02
  -3.9831895e-02   8.9377997e-03   3.9673662e-02
  -3.9409501e-02   8.7770520e-03   3.9088507e-02
  -4.2832049e-02   9.4492325e-03   4.2649407e-02
  -4.0135219e-02   8.6846279e-03   4.0080791e-02
  -5.3077377e-02   1.1301570e-02   5.2941237e-02
  -5.3126626e-02   1.1283395e-02   5.3094986e-02
  -5.6159926e-02   7.7950960e-03   5.6204058e-02
  -5.5390077e-02   5.8237298e-03   5.5542810e-02
  -5.5822453e-02   5.8253751e-03   5.6024447e-02
  -4.8808464e-02   4.1041797e-03   4.9340199e-02
  -4.6289700e-02  -1.4302949e-04   4.7101485e-02
  -4.7184695e-02  -7.9427056e-04   4.7787019e-02
  -4.8971416e-02  -2.6054564e-03   4.9948022e-02
  -4.6399247e-02  -2.4882582e-03   4.7461409e-02
  -3.8876306e-02  -2.6623159e-03   3.9743250e-02
  -4.8116651e-02  -3.6997110e-03   4.9167755e-02
  -5.3206208e-02  -5.7664736e-03   5.4505686e-02
  -5.4816352e-02  -7.7679171e-03   5.6167501e-02
  -5.2998038e-02  -9.9226944e-03   5.4464493e-02
  -4.3290827e-02  -9.0465720e-03   4.4894655e-02
  -5.3075858e-02  -1.2000736e-02   5.4984960e-02
  -5.5988514e-02  -1.2995132e-02   5.7825458e-02
  -5.3455950e-02  -1.2433375e-02   5.5541800e-02
  -4.8864975e-02  -1.3382722e-02   5.0702559e-02
  -4.0673198e-02  -1.4300750e-02   4.2686618e-02
  -4.9956255e-02  -1.8871332e-02   5.2451831e-02
  -5.0113389e-02  -1.8947554e-02   5.2445703e-02
  -4.9869045e-02  -1.9013497e-02   5.2345889e-02
  -4.9432975e-02  -2.0000161e-02   5.2028939e-02
  -4.0808153e-02  -1.6922033e-02   4.2875350e-02
  -5.1405788e-02  -2.2584348e-02   5.4349538e-02
  -4.1425811e-02  -1.8610772e-02   4.3617675e-02
  -4.1051449e-02  -1.8483426e-02   4.3228854e-02
  -4.7204909e-02  -2.4730453e-02   5.0215586e-02
  -4.7230254e-02  -2.4711502e-02   5.0223715e-02
  -4.0554688e-02  -2.2277327e-02   4.3053840e-02
  -4.0652019e-02   1.2463207e-02   4.0796771e-02
  -5.4823280e-02   1.6088701e-02   5.5138221e-02
  -5.4556296e-02   1.4637893e-02   5.4768477e-02
  -5.4402298e-02   1.4581157e-02   5.4633780e-02
  -5.3126397e-02   1.2269202e-02   5.3720334e-02
  -4.2369947e-02   9.6591757e-03   4.2746814e-02
  -4.2142253e-02   9.5936068e-03   4.2441292e-02
  -4.7176564e-02   2.7792132e-03   4.8241131e-02
  -4.6444467e-02   9.9929453e-04   4.7696190e-02
  -4.5592816e-02   1.7045372e-04   4.7104086e-02
  -4.6900620e-02  -4.6203049e-04   4.8364640e-02
  -4.7615434e-02  -3.6134664e-04   4.9130335e-02
  -4.7045343e-02  -4.2290091e-04   4.8616886e-02
  -4.6168960e-02  -9.8065438e-04   4.7551266e-02
  -4.6568246e-02  -1.3482192e-03   4.8093520e-02
  -4.6115381e-02  -1.4286836e-03   4.7661101e-02
  -4.5476836e-02  -2.0850259e-03   4.7074447e-02
  -5.2636517e-02  -6.6024938e-03   5.4865985e-02
  -5.2439761e-02  -6.9528476e-03   5.4802467e-02
  -5.4529467e-02  -8.4948534e-03   5.6830685e-02
  -4.1334748e-02  -6.8134858e-03   4.3325955e-02
  -4.9563945e-02  -8.9440837e-03   5.1970191e-02
  -5.2929550e-02  -9.6326934e-03   5.5555303e-02
  -5.3407921e-02  -1.1352796e-02   5.6068124e-02
  -4.2581430e-02  -9.8110130e-03   4.4737299e-02
  -4.2171082e-02  -9.8935677e-03   4.4453840e-02
  -4.8875084e-02  -1.1596537e-02   5.1550413e-02
  -4.1849887e-02  -1.1183445e-02   4.3981119e-02
  -5.1838475e-02  -1.5784462e-02   5.4858458e-02
  -4.1152399e-02  -1.4934157e-02   4.3786344e-02
  -4.9423210e-02  -1.9658694e-02   5.2560213e-02
  -4.9493366e-02  -1.9799901e-02   5.2900219e-02
  -4.1924688e-02  -1.9049640e-02   4.5079063e-02
  -4.0297746e-02  -2.2423110e-02   4.3550581e-02
  -4.2658738e-02  -1.0780810e-02   5.4195961e-02
  -3.9584059e-02  -1.8671986e-02   5.1223200e-02
  -4.0305236e-02  -2.0865311e-02   5.3340445e-02
  -4.2174690e-02  -2.4678719e-02   5.5921219e-02
  -3.9299496e-02  -1.8686945e-02   5.2507673e-02
  -3.9927900e-02  -2.1382879e-02   5.3567612e-02
  -3.9286654e-02  -2.4042395e-02   5.3261340e-02
  -4.0546591e-02  -2.4103843e-02   5.5495638e-02
  -4.0123982e-02  -2.3924090e-02   5.5097229e-02
  -3.9109110e-02  -2.3519438e-02   5.4348537e-02
  -3.9148723e-02  -2.4868678e-02   5.4603871e-02
  -3.9210738e-02  -2.4865603e-02   5.5605372e-02
  -6.0328007e-02   1.4561550e-02   5.1691812e-02
  -5.6338385e-02   1.1639593e-02   4.8558345e-02
  -5.7148505e-02   1.1501943e-02   4.9301640e-02
  -5.6765498e-02   1.1356490e-02   4.8941017e-02
  -5.8533801e-02   1.1224759e-02   5.0458461e-02
  -5.4365432e-02   6.3806555e-03   4.7104693e-02
  -4.8091717e-02   3.6423075e-03   4.1818421e-02
  -6.4106641e-02   2.3014996e-03   5.6081288e-02
  -6.5409106e-02   2.2954042e-03   5.7052628e-02
  -4.0226087e-02   1.3903976e-04   3.5374329e-02
  -6.4752751e-02  -1.6023728e-03   5.6867726e-02
  -6.4163633e-02  -2.5051706e-03   5.6378923e-02
  -6.3143800e-02  -4.1114540e-03   5.5570198e-02
  -4.0051968e-02  -2.9378336e-03   3.5417210e-02
  -5.6368756e-02  -4.2344081e-03   4.9651237e-02
  -5.8864605e-02  -5.3603179e-03   5.2145866e-02
  -6.4933608e-02  -5.9897879e-03   5.7374957e-02
  -5.9861954e-02  -6.6108393e-03   5.3097566e-02
  -5.2054421e-02  -1.5218324e-02   4.6824763e-02
  -4.9125469e-02  -1.5905961e-02   4.4373952e-02
  -6.0573415e-02  -2.0553243e-02   5.4675982e-02
  -5.2287536e-02  -1.7891601e-02   4.7109908e-02
  -5.1812315e-02  -1.8093155e-02   4.6857493e-02
  -5.5341680e-02  -2.0016176e-02   5.0074160e-02
  -4.2680088e-02   1.1607238e-02   3.7155522e-02
  -4.2394842e-02   1.1520088e-02   3.6902659e-02
  -5.5644994e-02   1.2815760e-02   4.8528563e-02
  -5.5515258e-02   1.2728184e-02   4.8516815e-02
  -6.5495798e-02   1.4840268e-02   5.6957963e-02
  -6.4747032e-02   1.3762742e-02   5.6390455e-02
  -5.6460676e-02   1.2103610e-02   4.9306207e-02
  -5.6078240e-02   1.1969498e-02   4.8927774e-02
  -6.3592442e-02   1.3567959e-02   5.5459498e-02
  -5.4601870e-02   1.1641739e-02   4.7747718e-02
  -5.5189611e-02   1.1720997e-02   4.8212400e-02
  -5.4575039e-02   1.1575503e-02   4.7730092e-02
  -5.8855230e-02   1.2356729e-02   5.1198698e-02
  -5.8327077e-02   1.2086865e-02   5.1076302e-02
  -5.4410999e-02   1.0978779e-02   4.7462565e-02
  -5.6339399e-02   1.1446845e-02   4.9321378e-02
  -5.6442888e-02   1.1235621e-02   4.9332112e-02
  -5.7400916e-02   1.1386166e-02   5.0034510e-02
  -5.6537683e-02   1.1232533e-02   4.9425852e-02
  -5.6928420e-02   1.1273152e-02   4.9677967e-02
  -5.4653440e-02   1.0770087e-02   4.7645571e-02
  -5.9419325e-02   1.1613297e-02   5.2077469e-02
  -5.9670492e-02   1.1534784e-02   5.2175310e-02
  -5.8717430e-02   1.1334875e-02   5.1381309e-02
  -5.8573732e-02   1.1273463e-02   5.1103354e-02
  -5.9307603e-02   1.1343813e-02   5.1738783e-02
  -4.4897156e-02   7.9583962e-03   3.9225986e-02
  -4.5034873e-02   7.5657942e-03   3.9505608e-02
  -4.5987562e-02   7.6980569e-03   4.0305297e-02
  -4.5532287e-02   7.5542056e-03   3.9900980e-02
  -4.5163875e-02   7.4479817e-03   3.9539181e-02
  -4.4712262e-02   7.3571382e-03   3.9090467e-02
  -4.6934348e-02   7.6996991e-03   4.1136999e-02
  -4.4603533e-02   7.2659920e-03   3.9209187e-02
  -5.6519582e-02   7.3237978e-03   4.9554770e-02
  -6.0582909e-02   7.7636882e-03   5.3399820e-02
  -4.4913067e-02   5.3334280e-03   3.9439481e-02
  -6.0864209e-02   6.2267433e-03   5.3848021e-02
  -5.3662335e-02   5.0150080e-03   4.7176286e-02
  -6.5388911e-02   4.5803065e-03   5.7949779e-02
  -5.7305345e-02  -7.8797717e-05   5.0994090e-02
  -3.9414264e-02  -4.4677172e-04   3.5188337e-02
  -6.4269816e-02  -7.4095680e-04   5.7241195e-02
  -5.8276849e-02  -9.7818856e-04   5.1836674e-02
  -6.3578769e-02  -1.8340646e-03   5.6698936e-02
  -5.4614302e-02  -5.8296326e-03   4.9147204e-02
  -5.4801508e-02  -5.9914701e-03   4.9214711e-02
  -4.9207770e-02  -8.2466656e-03   4.4310187e-02
  -4.7111412e-02  -8.4781642e-03   4.2450429e-02
  -5.2126353e-02  -1.8716382e-02   4.7921998e-02
  -6.1073550e-02  -2.3545629e-02   5.6165943e-02
  -4.4162397e-02  -1.7232963e-02   4.0517442e-02
  -4.4786786e-02  -1.7477025e-02   4.1080445e-02
  -4.3947863e-02  -1.7221476e-02   4.0298617e-02
  -4.2800314e-02   1.1847084e-02   3.7622751e-02
  -5.7452566e-02   1.3872546e-02   5.0777318e-02
  -6.0069883e-02   1.4205726e-02   5.3205277e-02
  -6.0022064e-02   1.4158896e-02   5.3229057e-02
  -5.5460887e-02   1.2737001e-02   4.8912209e-02
  -5.9936294e-02   1.3428422e-02   5.3137393e-02
  -5.7324153e-02   1.2541256e-02   5.0790843e-02
  -5.8732565e-02   1.2701116e-02   5.2014882e-02
  -5.2823065e-02   1.1419278e-02   4.6912122e-02
  -5.6768139e-02   1.2208222e-02   5.0331788e-02
  -5.7583338e-02   1.2381386e-02   5.1104493e-02
  -5.4351398e-02   1.1664683e-02   4.8136260e-02
  -5.8096694e-02   1.2450184e-02   5.1361513e-02
  -5.4704608e-02   1.1712070e-02   4.8358132e-02
  -5.7281591e-02   1.2241187e-02   5.0583504e-02
  -5.7832792e-02   1.2364760e-02   5.1085439e-02
  -5.6145242e-02   1.1970901e-02   4.9745503e-02
  -5.8700534e-02   1.2492510e-02   5.1916651e-02
  -5.5381799e-02   1.1725958e-02   4.8935902e-02
  -5.2061780e-02   1.1035367e-02   4.6190449e-02
  -5.5469160e-02   1.1222530e-02   4.9190293e-02
  -6.0275863e-02   1.1950620e-02   5.3509750e-02
  -5.9629056e-02   1.1741337e-02   5.2826548e-02
  -5.3442472e-02   1.0343215e-02   4.7525244e-02
  -5.3422226e-02   1.0321084e-02   4.7491243e-02
  -5.5801196e-02   1.0512815e-02   4.9370487e-02
  -6.0813122e-02   1.1260867e-02   5.3830602e-02
  -5.3129694e-02   9.7568243e-03   4.7281646e-02
  -4.4755474e-02   7.6396595e-03   3.9920745e-02
  -5.7633823e-02   9.4268804e-03   5.1438013e-02
  -4.8750694e-02   7.3645281e-03   4.3325647e-02
  -5.1944844e-02   7.6846991e-03   4.6118864e-02
  -5.9151792e-02   8.2098481e-03   5.2918686e-02
  -5.4614458e-02   5.7675854e-03   4.8857010e-02
  -6.1635766e-02   4.6567902e-03   5.5135383e-02
  -6.0398826e-02   3.5484666e-03   5.4197705e-02
  -6.2027768e-02   3.2191335e-03   5.5891907e-02
  -4.9139917e-02   4.9099407e-04   4.4376319e-02
  -5.6646584e-02   4.6419464e-04   5.1136070e-02
  -5.5683917e-02  -1.6683814e-03   5.0332695e-02
  -5.4953836e-02  -3.5092898e-03   4.9942867e-02
  -4.9204203e-02  -3.2741118e-03   4.4527455e-02
  -5.6585313e-02  -6.1374495e-03   5.1714610e-02
  -5.7488804e-02  -7.7173845e-03   5.2579940e-02
  -5.3316024e-02  -8.6459365e-03   4.8809318e-02
  -5.3097367e-02  -8.7526453e-03   4.8791897e-02
  -5.3667301e-02  -1.0202840e-02   4.9288982e-02
  -4.7837660e-02  -9.5927393e-03   4.3794393e-02
  -5.2905559e-02  -1.0471902e-02   4.8735700e-02
  -5.2556840e-02  -1.0668359e-02   4.8423227e-02
  -4.9962847e-02  -1.6475687e-02   4.6509365e-02
  -6.1601866e-02  -2.0803050e-02   5.7371302e-02
  -6.1669451e-02  -2.0879070e-02   5.7519085e-02
  -4.6868222e-02  -1.6517175e-02   4.3599505e-02
  -4.5987690e-02  -1.6389818e-02   4.2791957e-02
  -4.5654296e-02  -1.6268613e-02   4.2521591e-02
  -5.1440358e-02  -1.8856123e-02   4.8042376e-02
  -4.2108225e-02   1.1773252e-02   3.7701642e-02
  -4.2077291e-02   1.1544217e-02   3.7751449e-02
  -4.2982465e-02   1.1727925e-02   3.8488682e-02
  -5.3216009e-02   1.1790363e-02   4.7712123e-02
  -5.5320935e-02   1.2283091e-02   4.9772260e-02
  -5.6937467e-02   1.2496693e-02   5.1307944e-02
  -4.8055521e-02   9.8077983e-03   4.3208519e-02
  -5.3254147e-02   1.0708777e-02   4.8104236e-02
  -5.3899521e-02   1.0794079e-02   4.8417344e-02
  -5.9698322e-02   1.1586115e-02   5.3904246e-02
  -6.2650488e-02   1.1751161e-02   5.6536412e-02
  -5.0793510e-02   9.2245555e-03   4.5802694e-02
  -5.2844173e-02   6.4820310e-03   4.7976126e-02
  -4.8571603e-02   5.9012205e-03   4.4001532e-02
  -5.8118792e-02   6.3846778e-03   5.2767922e-02
  -4.8474286e-02   5.3016454e-03   4.3916347e-02
  -4.8500765e-02   5.2849751e-03   4.3955054e-02
  -4.8067025e-02   4.8458789e-03   4.3628985e-02
  -6.1756738e-02   5.1015730e-03   5.6137111e-02
  -6.0054411e-02   2.5118549e-03   5.4785349e-02
  -4.8758219e-02   7.5259896e-04   4.4661432e-02
  -3.9632858e-02  -7.6309190e-04   3.6402340e-02
  -4.0452158e-02  -7.6939071e-04   3.7037704e-02
  -3.9493297e-02  -8.0686071e-04   3.6207082e-02
  -3.8722300e-02  -7.9545584e-04   3.5477930e-02
  -4.4536574e-02  -1.0980142e-03   4.0892916e-02
  -6.1288264e-02  -1.7082700e-03   5.6339452e-02
  -6.2939498e-02  -1.8836195e-03   5.7950172e-02
  -5.2803329e-02  -1.6469921e-03   4.8556294e-02
  -5.3247632e-02  -1.6827208e-03   4.8977978e-02
  -5.4800967e-02  -2.6628413e-03   5.0359940e-02
  -6.0474388e-02  -4.2278059e-03   5.5849171e-02
  -6.0557919e-02  -4.3292608e-03   5.5748081e-02
  -5.3637418e-02  -4.2015492e-03   4.9633615e-02
  -5.3146368e-02  -4.1796944e-03   4.8852940e-02
  -5.5699436e-02  -5.7061875e-03   5.1652813e-02
  -4.8201009e-02  -6.6925201e-03   4.4581897e-02
  -4.8949436e-02  -7.1080194e-03   4.5491062e-02
  -5.0271517e-02  -7.6488286e-03   4.6712650e-02
  -5.3035713e-02  -8.5169076e-03   4.9105104e-02
  -5.6481981e-02  -9.3632037e-03   5.2500167e-02
  -5.0477504e-02  -8.7790568e-03   4.7013454e-02
  -4.7624462e-02  -8.5786777e-03   4.4181057e-02
  -5.1915986e-02  -9.5789740e-03   4.8477536e-02
  -5.2855363e-02  -9.9816325e-03   4.9330705e-02
  -5.2424460e-02  -9.9652133e-03   4.8754652e-02
  -3.8833546e-02  -7.7017081e-03   3.6178678e-02
  -3.8813153e-02  -8.3348636e-03   3.6119460e-02
  -5.1594400e-02  -1.1841846e-02   4.8329695e-02
  -5.1264779e-02  -1.2793906e-02   4.8070964e-02
  -4.1854549e-02  -1.0952221e-02   3.9208465e-02
  -5.2168956e-02  -1.8073221e-02   4.9376654e-02
  -4.4112367e-02  -1.5754470e-02   4.1805533e-02
  -5.7571875e-02  -2.2920979e-02   5.4485152e-02
  -4.2235626e-02   1.1459843e-02   3.8428240e-02
  -5.4624139e-02   1.3375630e-02   4.9688851e-02
  -5.6480962e-02   1.3033239e-02   5.1346541e-02
  -5.4875134e-02   1.2568823e-02   4.9914350e-02
  -5.4435842e-02   1.2410207e-02   4.9590135e-02
  -5.4374403e-02   1.2406301e-02   4.9716723e-02
  -5.6471393e-02   1.2843277e-02   5.1425655e-02
  -5.3490546e-02   1.2110798e-02   4.8765225e-02
  -5.4622931e-02   1.2314308e-02   4.9651257e-02
  -5.7298016e-02   1.2913328e-02   5.2092467e-02
  -5.3926368e-02   1.2150910e-02   4.9116238e-02
  -5.3506247e-02   1.2048231e-02   4.8834806e-02
  -5.7548807e-02   1.2908274e-02   5.2324571e-02
  -5.5572122e-02   1.2489758e-02   5.0726702e-02
  -5.7379005e-02   1.2847711e-02   5.2138765e-02
  -5.5532254e-02   1.2434167e-02   5.0469548e-02
  -5.8949749e-02   1.2161618e-02   5.3934243e-02
  -5.9066529e-02   1.1715793e-02   5.3822570e-02
  -5.3183888e-02   1.0543239e-02   4.8668154e-02
  -5.9516375e-02   1.1470860e-02   5.4608333e-02
  -5.9635723e-02   1.1430242e-02   5.4711164e-02
  -5.6016838e-02   1.0397951e-02   5.1229573e-02
  -5.1407533e-02   9.5186212e-03   4.7034085e-02
  -5.1465751e-02   9.5086159e-03   4.7198468e-02
  -4.4706344e-02   2.9034855e-03   4.1396996e-02
  -5.1153412e-02   2.1345904e-03   4.7289093e-02
  -4.8419639e-02   9.2948304e-04   4.4933254e-02
  -5.3620603e-02  -1.0029387e-03   5.0002502e-02
  -5.3876536e-02  -1.1941256e-03   5.0139728e-02
  -4.7763999e-02  -1.8307694e-03   4.4636010e-02
  -5.6294042e-02  -3.4415483e-03   5.2456229e-02
  -5.3743010e-02  -5.6594610e-03   5.0354699e-02
  -5.3992746e-02  -6.0061696e-03   5.0692078e-02
  -5.4981832e-02  -6.1877318e-03   5.1650704e-02
  -5.5278914e-02  -6.2514981e-03   5.2040728e-02
  -5.4701694e-02  -6.2454902e-03   5.1269179e-02
  -5.3784556e-02  -6.2898358e-03   5.0648768e-02
  -5.4670025e-02  -6.6411068e-03   5.1516719e-02
  -4.6199339e-02  -6.1902894e-03   4.3425305e-02
  -4.6927423e-02  -6.2959901e-03   4.3986694e-02
  -4.7567649e-02  -6.3870427e-03   4.4701553e-02
  -5.2744901e-02  -7.7237776e-03   4.9684073e-02
  -4.6543747e-02  -8.4044034e-03   4.3959412e-02
  -5.1349727e-02  -1.1675522e-02   4.8875250e-02
  -5.1418354e-02  -1.1932237e-02   4.8865166e-02
  -4.4444019e-02  -1.2713326e-02   4.2467352e-02
  -4.3903990e-02  -1.4812581e-02   4.2099368e-02
  -5.3012525e-02  -1.7940364e-02   5.0736776e-02
  -5.2583849e-02  -1.8579999e-02   5.0598161e-02
  -4.3768157e-02  -1.5980562e-02   4.1964928e-02
  -4.2731152e-02  -1.6843744e-02   4.1242360e-02
  -5.6060197e-02  -2.2196150e-02   5.3841736e-02
  -5.7560365e-02  -2.2818263e-02   5.5211521e-02
  -4.3895914e-02   1.3250052e-02   4.0323752e-02
  -5.6206588e-02   1.6655731e-02   5.1920365e-02
  -5.4436327e-02   1.4504059e-02   5.0135912e-02
  -5.4972452e-02   1.4506059e-02   5.0611688e-02
  -5.4945897e-02   1.4279662e-02   5.0618522e-02
  -5.4236153e-02   1.4053849e-02   5.0080918e-02
  -5.4005332e-02   1.2373714e-02   4.9949969e-02
  -5.4113538e-02   1.2337992e-02   4.9924905e-02
  -4.2785875e-02   7.8372985e-03   3.9754920e-02
  -4.3826589e-02   8.0084398e-03   4.0712301e-02
  -4.4170731e-02   8.0404077e-03   4.1057595e-02
  -4.8676767e-02   7.7304419e-03   4.5151244e-02
  -5.7617516e-02   9.0258738e-03   5.3745845e-02
  -5.7619468e-02   8.8564856e-03   5.3702743e-02
  -5.3367468e-02   7.8995916e-03   4.9603472e-02
  -4.4116899e-02   4.2423337e-03   4.1226657e-02
  -4.3463685e-02   4.1573996e-03   4.0721604e-02
  -4.4015706e-02   2.5495921e-03   4.1277990e-02
  -4.8492462e-02   1.1441194e-03   4.5628977e-02
  -4.7177041e-02   1.0699513e-03   4.4436083e-02
  -5.3009950e-02  -6.6246938e-05   5.0159490e-02
  -5.0500839e-02  -1.0783099e-04   4.7760693e-02
  -5.3830638e-02  -1.5381946e-04   5.0707285e-02
  -5.1500356e-02  -1.4128593e-04   4.8767585e-02
  -5.1386030e-02  -1.5489158e-04   4.8349094e-02
  -5.3121759e-02  -7.7539813e-04   5.0212921e-02
  -5.3885298e-02  -4.6019950e-03   5.1389987e-02
  -4.7981420e-02  -4.2111588e-03   4.5747383e-02
  -5.3435298e-02  -5.9468564e-03   5.0785816e-02
  -4.7254548e-02  -5.6512841e-03   4.4898735e-02
  -4.7675308e-02  -5.9401904e-03   4.5607543e-02
  -5.3286902e-02  -7.5205939e-03   5.0778519e-02
  -5.2531999e-02  -7.4420806e-03   5.0060308e-02
  -5.0954121e-02  -7.2834653e-03   4.8534113e-02
  -5.2692165e-02  -7.7931640e-03   5.0279308e-02
  -4.6696435e-02  -8.0044179e-03   4.4834089e-02
  -4.6484464e-02  -8.2776681e-03   4.4651483e-02
  -5.1533369e-02  -1.1980636e-02   4.9586592e-02
  -4.4855354e-02  -1.0595036e-02   4.3186992e-02
  -4.2063314e-02  -1.0474915e-02   4.0474045e-02
  -5.1089308e-02  -1.2858047e-02   4.9409147e-02
  -5.4971996e-02  -1.5371720e-02   5.3242538e-02
  -5.5250618e-02  -1.5657328e-02   5.3624977e-02
  -4.0919869e-02  -1.2703491e-02   3.9712404e-02
  -4.0939069e-02  -1.3026087e-02   3.9856710e-02
  -5.1381252e-02  -1.7191612e-02   5.0012832e-02
  -5.1711685e-02  -1.7334559e-02   5.0332594e-02
  -5.6002813e-02  -1.8840086e-02   5.4596395e-02
  -4.3560588e-02  -1.4870540e-02   4.2238703e-02
  -5.2279528e-02  -1.8290979e-02   5.1000371e-02
  -5.1416594e-02  -1.8011092e-02   5.0016090e-02
  -5.1892923e-02  -1.8244169e-02   5.0490932e-02
  -4.9845915e-02  -1.7614420e-02   4.8336449e-02
  -5.2320313e-02  -1.8562231e-02   5.0864081e-02
  -5.5710155e-02   1.2932996e-02   4.8107767e-02
  -5.5399567e-02   1.2853087e-02   4.7843229e-02
  -5.8949488e-02   1.2695255e-02   5.1130045e-02
  -5.7710020e-02   1.2203080e-02   5.0132279e-02
  -5.7471580e-02   1.2230385e-02   4.9781896e-02
  -5.7036323e-02   1.2004067e-02   4.9584428e-02
  -5.6380455e-02   1.1739242e-02   4.8851579e-02
  -5.6702613e-02   1.1824227e-02   4.9255524e-02
  -5.5043683e-02   1.1250619e-02   4.7642491e-02
  -5.4986845e-02   1.1360758e-02   4.7499412e-02
  -5.7396156e-02   1.1809917e-02   4.9579297e-02
  -4.7460784e-02   9.6752757e-03   4.1240833e-02
  -5.6230390e-02   1.1423757e-02   4.8707902e-02
  -5.5306578e-02   1.1242879e-02   4.8093686e-02
  -5.6380485e-02   1.1419504e-02   4.8842093e-02
  -5.4745275e-02   1.0892545e-02   4.7440807e-02
  -6.0063802e-02   1.0431863e-02   5.2397738e-02
  -5.9763510e-02   1.0285475e-02   5.2038595e-02
  -6.0301571e-02   9.3419450e-03   5.2429559e-02
  -6.5997340e-02   9.4390364e-03   5.7555609e-02
  -6.0409059e-02   8.3493023e-03   5.2773763e-02
  -4.5514330e-02   3.4886503e-03   3.9974644e-02
  -4.5807217e-02   3.4701770e-03   4.0244237e-02
  -5.1529566e-02   5.0293405e-04   4.5343417e-02
  -5.5256063e-02   5.3799811e-04   4.8792198e-02
  -6.4402117e-02   6.1140667e-05   5.6819443e-02
  -5.6229270e-02  -2.1845649e-03   4.9877142e-02
  -5.6745187e-02  -2.2130817e-03   5.0360289e-02
  -5.9187153e-02  -5.1730074e-03   5.2517709e-02
  -3.9411440e-02  -3.5064954e-03   3.5145232e-02
  -6.0305707e-02  -5.3604454e-03   5.3786940e-02
  -3.9299223e-02  -3.5394973e-03   3.5074882e-02
  -6.0204541e-02  -6.3835467e-03   5.3517954e-02
  -4.8361853e-02  -6.9531152e-03   4.3371017e-02
  -4.8452536e-02  -8.6243542e-03   4.3383189e-02
  -4.8593229e-02  -8.8403188e-03   4.3647127e-02
  -4.9019952e-02  -8.9321397e-03   4.4079389e-02
  -4.8943600e-02  -8.9402864e-03   4.3889462e-02
  -4.8338791e-02  -8.8964515e-03   4.3474531e-02
  -4.7562143e-02  -8.8915357e-03   4.2663372e-02
  -4.7789383e-02  -8.9600521e-03   4.2959164e-02
